4363884.800195 850463.305174 222.000000
4363884.800195 850464.426796 222.000000
4363884.800195 850465.548419 222.000000
4363884.800195 850466.670042 222.000000
4363884.800195 850467.791664 222.340000
4363884.800195 850468.913287 224.000000
4363884.800195 850470.034909 224.000000
4363884.800195 850471.156532 224.000000
4363884.800195 850472.278154 224.000000
4363884.800195 850473.399776 224.000000
4363884.800195 850474.521399 224.000000
4363884.800195 850475.643021 224.000000
4363884.800195 850476.764644 224.000000
4363884.800195 850477.886266 222.340000
4363884.800195 850479.007889 224.000000
4363884.800195 850480.129512 224.000000
4363884.800195 850481.251134 224.000000
4363884.800195 850482.372757 222.340000
4363884.800195 850483.494379 224.000000
4363884.800195 850484.616002 224.000000
4363884.800195 850485.737624 225.000000
4363884.800195 850486.859247 225.000000
4363884.800195 850487.980869 225.000000
4363884.800195 850489.102491 225.000000
4363884.800195 850490.224114 225.000000
4363884.800195 850491.345736 225.000000
4363884.800195 850492.467359 225.000000
4363884.800195 850493.588982 224.000000
4363884.800195 850494.710604 224.000000
4363884.800195 850495.832227 224.000000
4363884.800195 850496.953849 224.000000
4363884.800195 850498.075472 224.000000
4363884.800195 850499.197094 224.000000
4363884.800195 850500.318717 224.000000
4363884.800195 850501.440339 223.000000
4363884.800195 850502.561961 222.340000
4363884.800195 850503.683584 222.000000
4363884.800195 850504.805206 222.000000
4363884.800195 850505.926829 222.000000
4363884.800195 850507.048452 222.000000
4363884.800195 850508.170074 222.000000
4363884.800195 850509.291697 222.000000
4363884.800195 850510.413319 222.000000
4363884.800195 850511.534942 222.000000
4363884.800195 850512.656564 223.000000
4363884.800195 850513.778187 223.000000
4363884.800195 850514.899809 222.000000
4363884.800195 850516.021431 222.000000
4363884.800195 850517.143054 222.000000
4363884.800195 850518.264676 222.000000
4363884.800195 850519.386299 222.000000
4363884.800195 850520.507922 223.000000
4363884.800195 850521.629544 223.000000
4363884.800195 850522.751167 223.000000
4363884.800195 850523.872789 222.365200
4363884.800195 850524.994412 223.000000
4363884.800195 850526.116034 222.993800
4363884.800195 850527.237657 223.000000
4363884.800195 850528.359279 223.000000
4363884.800195 850529.480901 222.340000
4363884.800195 850530.602524 223.000000
4363884.800195 850531.724146 222.436900
4363884.800195 850532.845769 222.415400
4363884.800195 850533.967392 222.340000
4363884.800195 850535.089014 223.000000
4363884.800195 850536.210637 223.000000
4363884.800195 850537.332259 223.000000
4363884.800195 850538.453882 222.340000
4363884.800195 850539.575504 222.340000
4363884.800195 850540.697127 223.000000
4363884.800195 850541.818749 222.340000
4363884.800195 850542.940372 223.000000
4363884.800195 850544.061994 222.340000
4363884.800195 850545.183616 222.340000
4363884.800195 850546.305239 222.000000
4363884.800195 850547.426862 222.000000
4363884.800195 850548.548484 222.000000
4363884.800195 850549.670107 222.000000
4363884.800195 850550.791729 222.000000
4363884.800195 850551.913352 222.000000
4363884.800195 850553.034974 222.000000
4363884.800195 850554.156597 222.000000
4363884.800195 850555.278219 222.000000
4363884.800195 850556.399842 222.000000
4363884.800195 850557.521464 222.000000
4363884.800195 850558.643087 222.000000
4363884.800195 850559.764709 222.000000
4363884.800195 850560.886332 222.000000
4363884.800195 850562.007954 222.000000
4363884.800195 850563.129577 222.000000
4363884.800195 850564.251199 222.000000
4363884.800195 850565.372822 222.000000
4363884.800195 850566.494444 222.000000
4363884.800195 850567.616067 222.000000
4363884.800195 850568.737689 222.000000
4363884.800195 850569.859312 222.000000
4363884.800195 850570.980934 222.000000
4363884.800195 850572.102557 222.000000
4363884.800195 850573.224179 222.000000
4363884.800195 850574.345802 222.000000
4363884.800195 850575.467424 222.000000
4363884.800195 850576.589047 222.000000
4363884.800195 850577.710669 222.000000
4363884.800195 850578.832292 222.000000
4363884.800195 850579.953914 222.000000
4363884.800195 850581.075537 222.000000
4363884.800195 850582.197159 222.000000
4363884.800195 850583.318782 222.000000
4363884.800195 850584.440404 222.000000
4363884.800195 850585.562027 222.000000
4363884.800195 850586.683649 222.000000
4363884.800195 850587.805272 222.000000
4363884.800195 850588.926894 222.000000
4363884.800195 850590.048517 222.000000
4363885.921817 850396.007824 222.000000
4363885.921817 850397.129446 222.000000
4363885.921817 850398.251069 222.000000
4363885.921817 850399.372692 222.000000
4363885.921817 850400.494314 222.000000
4363885.921817 850401.615937 222.000000
4363885.921817 850402.737559 222.000000
4363885.921817 850403.859181 222.000000
4363885.921817 850404.980804 222.000000
4363885.921817 850406.102426 222.000000
4363885.921817 850407.224049 222.000000
4363885.921817 850408.345671 222.000000
4363885.921817 850409.467294 222.000000
4363885.921817 850410.588916 222.000000
4363885.921817 850411.710539 222.000000
4363885.921817 850412.832162 222.000000
4363885.921817 850413.953784 222.000000
4363885.921817 850415.075407 222.000000
4363885.921817 850416.197029 222.000000
4363885.921817 850417.318651 222.000000
4363885.921817 850418.440274 222.000000
4363885.921817 850419.561896 222.000000
4363885.921817 850420.683519 222.000000
4363885.921817 850421.805141 222.000000
4363885.921817 850422.926764 222.000000
4363885.921817 850424.048386 222.000000
4363885.921817 850425.170009 222.000000
4363885.921817 850426.291632 222.000000
4363885.921817 850427.413254 222.000000
4363885.921817 850428.534877 222.000000
4363885.921817 850429.656499 222.000000
4363885.921817 850430.778122 222.000000
4363885.921817 850431.899744 222.000000
4363885.921817 850433.021366 222.000000
4363885.921817 850434.142989 222.000000
4363885.921817 850435.264611 222.000000
4363885.921817 850436.386234 222.000000
4363885.921817 850437.507856 222.000000
4363885.921817 850438.629479 222.000000
4363885.921817 850439.751102 222.000000
4363885.921817 850440.872724 222.000000
4363885.921817 850441.994347 222.000000
4363885.921817 850443.115969 222.000000
4363885.921817 850444.237592 222.000000
4363885.921817 850445.359214 222.000000
4363885.921817 850446.480836 222.000000
4363885.921817 850447.602459 222.000000
4363885.921817 850448.724081 222.000000
4363885.921817 850449.845704 222.000000
4363885.921817 850450.967326 222.000000
4363885.921817 850452.088949 222.000000
4363885.921817 850453.210572 222.000000
4363885.921817 850454.332194 222.000000
4363885.921817 850455.453817 222.000000
4363885.921817 850456.575439 222.000000
4363885.921817 850457.697062 222.000000
4363885.921817 850458.818684 222.000000
4363885.921817 850459.940306 222.000000
4363885.921817 850461.061929 222.000000
4363885.921817 850462.183551 222.000000
4363885.921817 850463.305174 222.000000
4363885.921817 850464.426796 222.000000
4363885.921817 850465.548419 222.000000
4363885.921817 850466.670042 222.340000
4363885.921817 850467.791664 223.000000
4363885.921817 850468.913287 224.000000
4363885.921817 850470.034909 224.000000
4363885.921817 850471.156532 224.000000
4363885.921817 850472.278154 224.000000
4363885.921817 850473.399776 224.000000
4363885.921817 850474.521399 224.000000
4363885.921817 850475.643021 224.000000
4363885.921817 850476.764644 224.000000
4363885.921817 850477.886266 224.000000
4363885.921817 850479.007889 224.000000
4363885.921817 850480.129512 224.000000
4363885.921817 850481.251134 224.000000
4363885.921817 850482.372757 222.340000
4363885.921817 850483.494379 224.000000
4363885.921817 850484.616002 225.000000
4363885.921817 850485.737624 225.000000
4363885.921817 850486.859247 225.000000
4363885.921817 850487.980869 225.000000
4363885.921817 850489.102491 225.000000
4363885.921817 850490.224114 225.000000
4363885.921817 850491.345736 225.000000
4363885.921817 850492.467359 225.000000
4363885.921817 850493.588982 224.000000
4363885.921817 850494.710604 224.000000
4363885.921817 850495.832227 224.000000
4363885.921817 850496.953849 224.000000
4363885.921817 850498.075472 224.000000
4363885.921817 850499.197094 224.000000
4363885.921817 850500.318717 224.000000
4363885.921817 850501.440339 222.340000
4363885.921817 850502.561961 222.000000
4363885.921817 850503.683584 222.000000
4363885.921817 850504.805206 222.000000
4363885.921817 850505.926829 222.000000
4363885.921817 850507.048452 222.000000
4363885.921817 850508.170074 222.000000
4363885.921817 850509.291697 222.000000
4363885.921817 850510.413319 222.000000
4363885.921817 850511.534942 222.000000
4363885.921817 850512.656564 223.000000
4363885.921817 850513.778187 223.000000
4363885.921817 850514.899809 222.000000
4363885.921817 850516.021431 222.000000
4363885.921817 850517.143054 222.000000
4363885.921817 850518.264676 222.000000
4363885.921817 850519.386299 222.000000
4363885.921817 850520.507922 222.000000
4363885.921817 850521.629544 222.410600
4363885.921817 850522.751167 222.407000
4363885.921817 850523.872789 222.369800
4363885.921817 850524.994412 223.000000
4363885.921817 850526.116034 223.000000
4363885.921817 850527.237657 222.850900
4363885.921817 850528.359279 222.340000
4363885.921817 850529.480901 222.816100
4363885.921817 850530.602524 223.000000
4363885.921817 850531.724146 223.000000
4363885.921817 850532.845769 222.340000
4363885.921817 850533.967392 222.340000
4363885.921817 850535.089014 222.485100
4363885.921817 850536.210637 222.768400
4363885.921817 850537.332259 223.000000
4363885.921817 850538.453882 222.500800
4363885.921817 850539.575504 222.545000
4363885.921817 850540.697127 223.000000
4363885.921817 850541.818749 223.000000
4363885.921817 850542.940372 223.000000
4363885.921817 850544.061994 223.000000
4363885.921817 850545.183616 222.340000
4363885.921817 850546.305239 222.000000
4363885.921817 850547.426862 222.000000
4363885.921817 850548.548484 222.000000
4363885.921817 850549.670107 222.000000
4363885.921817 850550.791729 222.000000
4363885.921817 850551.913352 222.000000
4363885.921817 850553.034974 222.000000
4363885.921817 850554.156597 222.000000
4363885.921817 850555.278219 222.000000
4363885.921817 850556.399842 222.000000
4363885.921817 850557.521464 222.000000
4363885.921817 850558.643087 222.000000
4363885.921817 850559.764709 222.000000
4363885.921817 850560.886332 222.000000
4363885.921817 850562.007954 222.000000
4363885.921817 850563.129577 222.000000
4363885.921817 850564.251199 222.000000
4363885.921817 850565.372822 222.000000
4363885.921817 850566.494444 222.000000
4363885.921817 850567.616067 222.000000
4363885.921817 850568.737689 222.000000
4363885.921817 850569.859312 222.000000
4363885.921817 850570.980934 222.000000
4363885.921817 850572.102557 222.000000
4363885.921817 850573.224179 222.000000
4363885.921817 850574.345802 222.000000
4363885.921817 850575.467424 222.000000
4363885.921817 850576.589047 222.000000
4363885.921817 850577.710669 222.000000
4363885.921817 850578.832292 222.000000
4363885.921817 850579.953914 222.000000
4363885.921817 850581.075537 222.000000
4363885.921817 850582.197159 222.000000
4363885.921817 850583.318782 222.000000
4363885.921817 850584.440404 222.000000
4363885.921817 850585.562027 222.000000
4363885.921817 850586.683649 222.000000
4363885.921817 850587.805272 222.000000
4363885.921817 850588.926894 222.000000
4363885.921817 850590.048517 222.000000
4363887.043440 850396.007824 222.000000
4363887.043440 850397.129446 222.000000
4363887.043440 850398.251069 222.000000
4363887.043440 850399.372692 222.000000
4363887.043440 850400.494314 222.000000
4363887.043440 850401.615937 222.000000
4363887.043440 850402.737559 222.000000
4363887.043440 850403.859181 222.000000
4363887.043440 850404.980804 222.000000
4363887.043440 850406.102426 222.000000
4363887.043440 850407.224049 222.000000
4363887.043440 850408.345671 222.000000
4363887.043440 850409.467294 222.000000
4363887.043440 850410.588916 222.000000
4363887.043440 850411.710539 222.000000
4363887.043440 850412.832162 222.000000
4363887.043440 850413.953784 222.000000
4363887.043440 850415.075407 222.000000
4363887.043440 850416.197029 222.000000
4363887.043440 850417.318651 222.000000
4363887.043440 850418.440274 222.000000
4363887.043440 850419.561896 222.000000
4363887.043440 850420.683519 222.000000
4363887.043440 850421.805141 222.000000
4363887.043440 850422.926764 222.000000
4363887.043440 850424.048386 222.000000
4363887.043440 850425.170009 222.000000
4363887.043440 850426.291632 222.000000
4363887.043440 850427.413254 222.000000
4363887.043440 850428.534877 222.000000
4363887.043440 850429.656499 222.000000
4363887.043440 850430.778122 222.000000
4363887.043440 850431.899744 222.000000
4363887.043440 850433.021366 222.000000
4363887.043440 850434.142989 222.000000
4363887.043440 850435.264611 222.000000
4363887.043440 850436.386234 222.000000
4363887.043440 850437.507856 222.000000
4363887.043440 850438.629479 222.000000
4363887.043440 850439.751102 222.000000
4363887.043440 850440.872724 222.000000
4363887.043440 850441.994347 222.000000
4363887.043440 850443.115969 222.000000
4363887.043440 850444.237592 222.000000
4363887.043440 850445.359214 222.000000
4363887.043440 850446.480836 222.000000
4363887.043440 850447.602459 222.000000
4363887.043440 850448.724081 222.000000
4363887.043440 850449.845704 222.000000
4363887.043440 850450.967326 222.000000
4363887.043440 850452.088949 222.000000
4363887.043440 850453.210572 222.000000
4363887.043440 850454.332194 222.000000
4363887.043440 850455.453817 222.000000
4363887.043440 850456.575439 222.000000
4363887.043440 850457.697062 222.000000
4363887.043440 850458.818684 222.000000
4363887.043440 850459.940306 222.000000
4363887.043440 850461.061929 222.000000
4363887.043440 850462.183551 222.000000
4363887.043440 850463.305174 222.000000
4363887.043440 850464.426796 222.000000
4363887.043440 850465.548419 222.000000
4363887.043440 850466.670042 222.340000
4363887.043440 850467.791664 224.000000
4363887.043440 850468.913287 224.000000
4363887.043440 850470.034909 224.000000
4363887.043440 850471.156532 224.000000
4363887.043440 850472.278154 224.000000
4363887.043440 850473.399776 224.000000
4363887.043440 850474.521399 224.000000
4363887.043440 850475.643021 224.000000
4363887.043440 850476.764644 222.340000
4363887.043440 850477.886266 224.000000
4363887.043440 850479.007889 224.000000
4363887.043440 850480.129512 224.000000
4363887.043440 850481.251134 222.340000
4363887.043440 850482.372757 224.000000
4363887.043440 850483.494379 224.000000
4363887.043440 850484.616002 225.000000
4363887.043440 850485.737624 225.000000
4363887.043440 850486.859247 225.000000
4363887.043440 850487.980869 225.000000
4363887.043440 850489.102491 225.000000
4363887.043440 850490.224114 225.000000
4363887.043440 850491.345736 225.000000
4363887.043440 850492.467359 224.000000
4363887.043440 850493.588982 224.000000
4363887.043440 850494.710604 224.000000
4363887.043440 850495.832227 224.000000
4363887.043440 850496.953849 224.000000
4363887.043440 850498.075472 224.000000
4363887.043440 850499.197094 224.000000
4363887.043440 850500.318717 223.000000
4363887.043440 850501.440339 222.340000
4363887.043440 850502.561961 222.000000
4363887.043440 850503.683584 222.000000
4363887.043440 850504.805206 222.000000
4363887.043440 850505.926829 222.000000
4363887.043440 850507.048452 222.000000
4363887.043440 850508.170074 222.000000
4363887.043440 850509.291697 222.000000
4363887.043440 850510.413319 222.000000
4363887.043440 850511.534942 223.000000
4363887.043440 850512.656564 223.000000
4363887.043440 850513.778187 222.000000
4363887.043440 850514.899809 222.000000
4363887.043440 850516.021431 222.000000
4363887.043440 850517.143054 222.000000
4363887.043440 850518.264676 222.000000
4363887.043440 850519.386299 222.000000
4363887.043440 850520.507922 222.000000
4363887.043440 850521.629544 222.000000
4363887.043440 850522.751167 222.447900
4363887.043440 850523.872789 222.405900
4363887.043440 850524.994412 223.000000
4363887.043440 850526.116034 222.340000
4363887.043440 850527.237657 223.000000
4363887.043440 850528.359279 223.000000
4363887.043440 850529.480901 222.488100
4363887.043440 850530.602524 222.495400
4363887.043440 850531.724146 223.000000
4363887.043440 850532.845769 223.000000
4363887.043440 850533.967392 223.000000
4363887.043440 850535.089014 223.000000
4363887.043440 850536.210637 223.000000
4363887.043440 850537.332259 223.000000
4363887.043440 850538.453882 222.340000
4363887.043440 850539.575504 222.340000
4363887.043440 850540.697127 223.000000
4363887.043440 850541.818749 223.000000
4363887.043440 850542.940372 223.000000
4363887.043440 850544.061994 223.000000
4363887.043440 850545.183616 222.340000
4363887.043440 850546.305239 222.340000
4363887.043440 850547.426862 222.000000
4363887.043440 850548.548484 222.000000
4363887.043440 850549.670107 222.000000
4363887.043440 850550.791729 222.000000
4363887.043440 850551.913352 222.000000
4363887.043440 850553.034974 222.000000
4363887.043440 850554.156597 222.000000
4363887.043440 850555.278219 222.000000
4363887.043440 850556.399842 222.000000
4363887.043440 850557.521464 222.000000
4363887.043440 850558.643087 222.000000
4363887.043440 850559.764709 222.000000
4363887.043440 850560.886332 222.000000
4363887.043440 850562.007954 222.000000
4363887.043440 850563.129577 222.000000
4363887.043440 850564.251199 222.000000
4363887.043440 850565.372822 222.000000
4363887.043440 850566.494444 222.000000
4363887.043440 850567.616067 222.000000
4363887.043440 850568.737689 222.000000
4363887.043440 850569.859312 222.000000
4363887.043440 850570.980934 222.000000
4363887.043440 850572.102557 222.000000
4363887.043440 850573.224179 222.000000
4363887.043440 850574.345802 222.000000
4363887.043440 850575.467424 222.000000
4363887.043440 850576.589047 222.000000
4363887.043440 850577.710669 222.000000
4363887.043440 850578.832292 222.000000
4363887.043440 850579.953914 222.000000
4363887.043440 850581.075537 222.000000
4363887.043440 850582.197159 222.000000
4363887.043440 850583.318782 222.000000
4363887.043440 850584.440404 222.000000
4363887.043440 850585.562027 222.000000
4363887.043440 850586.683649 222.000000
4363887.043440 850587.805272 222.000000
4363887.043440 850588.926894 222.000000
4363887.043440 850590.048517 222.000000
4363888.165062 850396.007824 222.000000
4363888.165062 850397.129446 222.000000
4363888.165062 850398.251069 222.000000
4363888.165062 850399.372692 222.000000
4363888.165062 850400.494314 222.000000
4363888.165062 850401.615937 222.000000
4363888.165062 850402.737559 222.000000
4363888.165062 850403.859181 222.000000
4363888.165062 850404.980804 222.000000
4363888.165062 850406.102426 222.000000
4363888.165062 850407.224049 222.000000
4363888.165062 850408.345671 222.000000
4363888.165062 850409.467294 222.000000
4363888.165062 850410.588916 222.000000
4363888.165062 850411.710539 222.000000
4363888.165062 850412.832162 222.000000
4363888.165062 850413.953784 222.000000
4363888.165062 850415.075407 222.000000
4363888.165062 850416.197029 222.000000
4363888.165062 850417.318651 222.000000
4363888.165062 850418.440274 222.000000
4363888.165062 850419.561896 222.000000
4363888.165062 850420.683519 222.000000
4363888.165062 850421.805141 222.000000
4363888.165062 850422.926764 222.000000
4363888.165062 850424.048386 222.000000
4363888.165062 850425.170009 222.000000
4363888.165062 850426.291632 222.000000
4363888.165062 850427.413254 222.000000
4363888.165062 850428.534877 222.000000
4363888.165062 850429.656499 222.000000
4363888.165062 850430.778122 222.000000
4363888.165062 850431.899744 222.000000
4363888.165062 850433.021366 222.000000
4363888.165062 850434.142989 222.000000
4363888.165062 850435.264611 222.000000
4363888.165062 850436.386234 222.000000
4363888.165062 850437.507856 222.000000
4363888.165062 850438.629479 222.000000
4363888.165062 850439.751102 222.000000
4363888.165062 850440.872724 222.000000
4363888.165062 850441.994347 222.000000
4363888.165062 850443.115969 222.000000
4363888.165062 850444.237592 222.000000
4363888.165062 850445.359214 222.000000
4363888.165062 850446.480836 222.000000
4363888.165062 850447.602459 222.000000
4363888.165062 850448.724081 222.000000
4363888.165062 850449.845704 222.000000
4363888.165062 850450.967326 222.000000
4363888.165062 850452.088949 222.000000
4363888.165062 850453.210572 222.000000
4363888.165062 850454.332194 222.000000
4363888.165062 850455.453817 222.000000
4363888.165062 850456.575439 222.000000
4363888.165062 850457.697062 222.000000
4363888.165062 850458.818684 222.000000
4363888.165062 850459.940306 222.000000
4363888.165062 850461.061929 222.000000
4363888.165062 850462.183551 222.000000
4363888.165062 850463.305174 222.000000
4363888.165062 850464.426796 222.000000
4363888.165062 850465.548419 222.340000
4363888.165062 850466.670042 223.000000
4363888.165062 850467.791664 224.000000
4363888.165062 850468.913287 224.000000
4363888.165062 850470.034909 224.000000
4363888.165062 850471.156532 224.000000
4363888.165062 850472.278154 224.996600
4363888.165062 850473.399776 224.000000
4363888.165062 850474.521399 224.000000
4363888.165062 850475.643021 224.000000
4363888.165062 850476.764644 224.000000
4363888.165062 850477.886266 224.000000
4363888.165062 850479.007889 224.000000
4363888.165062 850480.129512 224.000000
4363888.165062 850481.251134 222.340000
4363888.165062 850482.372757 224.000000
4363888.165062 850483.494379 224.000000
4363888.165062 850484.616002 225.000000
4363888.165062 850485.737624 225.000000
4363888.165062 850486.859247 225.000000
4363888.165062 850487.980869 225.000000
4363888.165062 850489.102491 225.000000
4363888.165062 850490.224114 225.000000
4363888.165062 850491.345736 225.000000
4363888.165062 850492.467359 224.000000
4363888.165062 850493.588982 224.000000
4363888.165062 850494.710604 224.000000
4363888.165062 850495.832227 224.000000
4363888.165062 850496.953849 224.000000
4363888.165062 850498.075472 224.000000
4363888.165062 850499.197094 224.000000
4363888.165062 850500.318717 223.000000
4363888.165062 850501.440339 222.340000
4363888.165062 850502.561961 222.000000
4363888.165062 850503.683584 222.000000
4363888.165062 850504.805206 222.000000
4363888.165062 850505.926829 222.000000
4363888.165062 850507.048452 222.000000
4363888.165062 850508.170074 222.000000
4363888.165062 850509.291697 222.000000
4363888.165062 850510.413319 222.000000
4363888.165062 850511.534942 223.000000
4363888.165062 850512.656564 223.000000
4363888.165062 850513.778187 222.000000
4363888.165062 850514.899809 222.000000
4363888.165062 850516.021431 222.000000
4363888.165062 850517.143054 222.000000
4363888.165062 850518.264676 222.000000
4363888.165062 850519.386299 222.000000
4363888.165062 850520.507922 222.000000
4363888.165062 850521.629544 222.000000
4363888.165062 850522.751167 222.393000
4363888.165062 850523.872789 223.000000
4363888.165062 850524.994412 223.000000
4363888.165062 850526.116034 223.000000
4363888.165062 850527.237657 223.000000
4363888.165062 850528.359279 223.000000
4363888.165062 850529.480901 223.000000
4363888.165062 850530.602524 223.000000
4363888.165062 850531.724146 222.340000
4363888.165062 850532.845769 222.340000
4363888.165062 850533.967392 222.340000
4363888.165062 850535.089014 223.000000
4363888.165062 850536.210637 223.000000
4363888.165062 850537.332259 223.000000
4363888.165062 850538.453882 223.000000
4363888.165062 850539.575504 222.340000
4363888.165062 850540.697127 223.000000
4363888.165062 850541.818749 222.340000
4363888.165062 850542.940372 223.000000
4363888.165062 850544.061994 222.340000
4363888.165062 850545.183616 222.000000
4363888.165062 850546.305239 222.000000
4363888.165062 850547.426862 222.000000
4363888.165062 850548.548484 222.000000
4363888.165062 850549.670107 222.000000
4363888.165062 850550.791729 222.000000
4363888.165062 850551.913352 222.000000
4363888.165062 850553.034974 222.000000
4363888.165062 850554.156597 222.000000
4363888.165062 850555.278219 222.000000
4363888.165062 850556.399842 222.000000
4363888.165062 850557.521464 222.000000
4363888.165062 850558.643087 222.000000
4363888.165062 850559.764709 222.000000
4363888.165062 850560.886332 222.000000
4363888.165062 850562.007954 222.000000
4363888.165062 850563.129577 222.000000
4363888.165062 850564.251199 222.000000
4363888.165062 850565.372822 222.000000
4363888.165062 850566.494444 222.000000
4363888.165062 850567.616067 222.000000
4363888.165062 850568.737689 222.000000
4363888.165062 850569.859312 222.000000
4363888.165062 850570.980934 222.000000
4363888.165062 850572.102557 222.000000
4363888.165062 850573.224179 222.000000
4363888.165062 850574.345802 222.000000
4363888.165062 850575.467424 222.000000
4363888.165062 850576.589047 222.000000
4363888.165062 850577.710669 222.000000
4363888.165062 850578.832292 222.000000
4363888.165062 850579.953914 222.000000
4363888.165062 850581.075537 222.000000
4363888.165062 850582.197159 222.000000
4363888.165062 850583.318782 222.000000
4363888.165062 850584.440404 222.000000
4363888.165062 850585.562027 222.000000
4363888.165062 850586.683649 222.000000
4363888.165062 850587.805272 222.000000
4363888.165062 850588.926894 222.000000
4363888.165062 850590.048517 222.000000
4363889.286685 850396.007824 222.000000
4363889.286685 850397.129446 222.000000
4363889.286685 850398.251069 222.000000
4363889.286685 850399.372692 222.000000
4363889.286685 850400.494314 222.000000
4363889.286685 850401.615937 222.000000
4363889.286685 850402.737559 222.000000
4363889.286685 850403.859181 222.000000
4363889.286685 850404.980804 222.000000
4363889.286685 850406.102426 222.000000
4363889.286685 850407.224049 222.000000
4363889.286685 850408.345671 222.000000
4363889.286685 850409.467294 222.000000
4363889.286685 850410.588916 222.000000
4363889.286685 850411.710539 222.000000
4363889.286685 850412.832162 222.000000
4363889.286685 850413.953784 222.000000
4363889.286685 850415.075407 222.000000
4363889.286685 850416.197029 222.000000
4363889.286685 850417.318651 222.000000
4363889.286685 850418.440274 222.000000
4363889.286685 850419.561896 222.000000
4363889.286685 850420.683519 222.000000
4363889.286685 850421.805141 222.000000
4363889.286685 850422.926764 222.000000
4363889.286685 850424.048386 222.000000
4363889.286685 850425.170009 222.000000
4363889.286685 850426.291632 222.000000
4363889.286685 850427.413254 222.000000
4363889.286685 850428.534877 222.000000
4363889.286685 850429.656499 222.000000
4363889.286685 850430.778122 222.000000
4363889.286685 850431.899744 222.000000
4363889.286685 850433.021366 222.000000
4363889.286685 850434.142989 222.000000
4363889.286685 850435.264611 222.000000
4363889.286685 850436.386234 222.000000
4363889.286685 850437.507856 222.000000
4363889.286685 850438.629479 222.000000
4363889.286685 850439.751102 223.000000
4363889.286685 850440.872724 223.000000
4363889.286685 850441.994347 222.340000
4363889.286685 850443.115969 222.000000
4363889.286685 850444.237592 222.000000
4363889.286685 850445.359214 222.000000
4363889.286685 850446.480836 222.000000
4363889.286685 850447.602459 222.000000
4363889.286685 850448.724081 222.000000
4363889.286685 850449.845704 222.000000
4363889.286685 850450.967326 222.000000
4363889.286685 850452.088949 222.000000
4363889.286685 850453.210572 222.000000
4363889.286685 850454.332194 222.000000
4363889.286685 850455.453817 222.000000
4363889.286685 850456.575439 222.000000
4363889.286685 850457.697062 222.000000
4363889.286685 850458.818684 222.000000
4363889.286685 850459.940306 222.000000
4363889.286685 850461.061929 222.000000
4363889.286685 850462.183551 222.000000
4363889.286685 850463.305174 222.000000
4363889.286685 850464.426796 222.000000
4363889.286685 850465.548419 222.340000
4363889.286685 850466.670042 224.000000
4363889.286685 850467.791664 224.000000
4363889.286685 850468.913287 224.000000
4363889.286685 850470.034909 224.000000
4363889.286685 850471.156532 224.000000
4363889.286685 850472.278154 224.000000
4363889.286685 850473.399776 224.000000
4363889.286685 850474.521399 224.000000
4363889.286685 850475.643021 224.000000
4363889.286685 850476.764644 224.000000
4363889.286685 850477.886266 224.000000
4363889.286685 850479.007889 224.000000
4363889.286685 850480.129512 222.340000
4363889.286685 850481.251134 224.000000
4363889.286685 850482.372757 224.000000
4363889.286685 850483.494379 225.000000
4363889.286685 850484.616002 225.000000
4363889.286685 850485.737624 225.000000
4363889.286685 850486.859247 225.000000
4363889.286685 850487.980869 225.000000
4363889.286685 850489.102491 225.000000
4363889.286685 850490.224114 225.000000
4363889.286685 850491.345736 224.000000
4363889.286685 850492.467359 224.000000
4363889.286685 850493.588982 224.000000
4363889.286685 850494.710604 224.000000
4363889.286685 850495.832227 224.000000
4363889.286685 850496.953849 224.000000
4363889.286685 850498.075472 224.000000
4363889.286685 850499.197094 224.000000
4363889.286685 850500.318717 222.340000
4363889.286685 850501.440339 222.000000
4363889.286685 850502.561961 222.000000
4363889.286685 850503.683584 222.000000
4363889.286685 850504.805206 222.000000
4363889.286685 850505.926829 222.000000
4363889.286685 850507.048452 222.000000
4363889.286685 850508.170074 222.000000
4363889.286685 850509.291697 222.000000
4363889.286685 850510.413319 222.000000
4363889.286685 850511.534942 222.000000
4363889.286685 850512.656564 222.000000
4363889.286685 850513.778187 222.000000
4363889.286685 850514.899809 222.000000
4363889.286685 850516.021431 222.000000
4363889.286685 850517.143054 222.000000
4363889.286685 850518.264676 222.000000
4363889.286685 850519.386299 222.000000
4363889.286685 850520.507922 222.000000
4363889.286685 850521.629544 222.000000
4363889.286685 850522.751167 223.000000
4363889.286685 850523.872789 222.409100
4363889.286685 850524.994412 223.000000
4363889.286685 850526.116034 223.000000
4363889.286685 850527.237657 223.000000
4363889.286685 850528.359279 223.000000
4363889.286685 850529.480901 223.000000
4363889.286685 850530.602524 223.000000
4363889.286685 850531.724146 223.000000
4363889.286685 850532.845769 222.441800
4363889.286685 850533.967392 222.447600
4363889.286685 850535.089014 222.445100
4363889.286685 850536.210637 223.000000
4363889.286685 850537.332259 222.340000
4363889.286685 850538.453882 222.340000
4363889.286685 850539.575504 222.000000
4363889.286685 850540.697127 222.000000
4363889.286685 850541.818749 222.000000
4363889.286685 850542.940372 222.000000
4363889.286685 850544.061994 222.000000
4363889.286685 850545.183616 222.000000
4363889.286685 850546.305239 222.000000
4363889.286685 850547.426862 222.000000
4363889.286685 850548.548484 222.000000
4363889.286685 850549.670107 222.000000
4363889.286685 850550.791729 222.000000
4363889.286685 850551.913352 222.000000
4363889.286685 850553.034974 222.000000
4363889.286685 850554.156597 222.000000
4363889.286685 850555.278219 222.000000
4363889.286685 850556.399842 222.000000
4363889.286685 850557.521464 222.000000
4363889.286685 850558.643087 222.000000
4363889.286685 850559.764709 222.000000
4363889.286685 850560.886332 222.000000
4363889.286685 850562.007954 222.000000
4363889.286685 850563.129577 222.000000
4363889.286685 850564.251199 222.000000
4363889.286685 850565.372822 222.000000
4363889.286685 850566.494444 222.000000
4363889.286685 850567.616067 222.000000
4363889.286685 850568.737689 222.000000
4363889.286685 850569.859312 222.000000
4363889.286685 850570.980934 222.000000
4363889.286685 850572.102557 222.000000
4363889.286685 850573.224179 222.000000
4363889.286685 850574.345802 222.000000
4363889.286685 850575.467424 222.000000
4363889.286685 850576.589047 222.000000
4363889.286685 850577.710669 222.000000
4363889.286685 850578.832292 222.000000
4363889.286685 850579.953914 222.000000
4363889.286685 850581.075537 222.000000
4363889.286685 850582.197159 222.000000
4363889.286685 850583.318782 222.000000
4363889.286685 850584.440404 222.000000
4363889.286685 850585.562027 222.000000
4363889.286685 850586.683649 222.000000
4363889.286685 850587.805272 222.000000
4363889.286685 850588.926894 222.000000
4363889.286685 850590.048517 222.000000
4363890.408307 850396.007824 222.000000
4363890.408307 850397.129446 222.000000
4363890.408307 850398.251069 222.000000
4363890.408307 850399.372692 222.000000
4363890.408307 850400.494314 222.000000
4363890.408307 850401.615937 222.000000
4363890.408307 850402.737559 222.000000
4363890.408307 850403.859181 222.000000
4363890.408307 850404.980804 222.000000
4363890.408307 850406.102426 222.000000
4363890.408307 850407.224049 222.000000
4363890.408307 850408.345671 222.000000
4363890.408307 850409.467294 222.000000
4363890.408307 850410.588916 222.000000
4363890.408307 850411.710539 222.000000
4363890.408307 850412.832162 222.000000
4363890.408307 850413.953784 222.000000
4363890.408307 850415.075407 222.000000
4363890.408307 850416.197029 222.000000
4363890.408307 850417.318651 222.000000
4363890.408307 850418.440274 222.000000
4363890.408307 850419.561896 222.000000
4363890.408307 850420.683519 222.000000
4363890.408307 850421.805141 222.000000
4363890.408307 850422.926764 222.000000
4363890.408307 850424.048386 222.000000
4363890.408307 850425.170009 222.000000
4363890.408307 850426.291632 222.000000
4363890.408307 850427.413254 222.000000
4363890.408307 850428.534877 222.000000
4363890.408307 850429.656499 222.000000
4363890.408307 850430.778122 222.000000
4363890.408307 850431.899744 222.000000
4363890.408307 850433.021366 222.000000
4363890.408307 850434.142989 222.000000
4363890.408307 850435.264611 222.000000
4363890.408307 850436.386234 222.000000
4363890.408307 850437.507856 222.000000
4363890.408307 850438.629479 222.340000
4363890.408307 850439.751102 223.000000
4363890.408307 850440.872724 223.000000
4363890.408307 850441.994347 222.673100
4363890.408307 850443.115969 222.585600
4363890.408307 850444.237592 222.000000
4363890.408307 850445.359214 222.000000
4363890.408307 850446.480836 222.000000
4363890.408307 850447.602459 222.000000
4363890.408307 850448.724081 222.000000
4363890.408307 850449.845704 222.000000
4363890.408307 850450.967326 222.000000
4363890.408307 850452.088949 222.000000
4363890.408307 850453.210572 222.000000
4363890.408307 850454.332194 222.000000
4363890.408307 850455.453817 222.000000
4363890.408307 850456.575439 222.000000
4363890.408307 850457.697062 222.000000
4363890.408307 850458.818684 222.000000
4363890.408307 850459.940306 222.000000
4363890.408307 850461.061929 222.000000
4363890.408307 850462.183551 222.000000
4363890.408307 850463.305174 222.000000
4363890.408307 850464.426796 222.340000
4363890.408307 850465.548419 223.000000
4363890.408307 850466.670042 224.000000
4363890.408307 850467.791664 224.000000
4363890.408307 850468.913287 224.000000
4363890.408307 850470.034909 224.000000
4363890.408307 850471.156532 224.000000
4363890.408307 850472.278154 224.000000
4363890.408307 850473.399776 224.000000
4363890.408307 850474.521399 224.000000
4363890.408307 850475.643021 222.340000
4363890.408307 850476.764644 224.000000
4363890.408307 850477.886266 224.000000
4363890.408307 850479.007889 224.000000
4363890.408307 850480.129512 222.340000
4363890.408307 850481.251134 224.000000
4363890.408307 850482.372757 224.000000
4363890.408307 850483.494379 225.000000
4363890.408307 850484.616002 225.000000
4363890.408307 850485.737624 225.000000
4363890.408307 850486.859247 225.000000
4363890.408307 850487.980869 225.000000
4363890.408307 850489.102491 225.000000
4363890.408307 850490.224114 225.000000
4363890.408307 850491.345736 224.000000
4363890.408307 850492.467359 224.000000
4363890.408307 850493.588982 224.000000
4363890.408307 850494.710604 224.000000
4363890.408307 850495.832227 224.000000
4363890.408307 850496.953849 224.000000
4363890.408307 850498.075472 224.000000
4363890.408307 850499.197094 223.000000
4363890.408307 850500.318717 222.340000
4363890.408307 850501.440339 222.000000
4363890.408307 850502.561961 222.000000
4363890.408307 850503.683584 222.000000
4363890.408307 850504.805206 222.000000
4363890.408307 850505.926829 222.000000
4363890.408307 850507.048452 222.000000
4363890.408307 850508.170074 222.000000
4363890.408307 850509.291697 222.000000
4363890.408307 850510.413319 222.000000
4363890.408307 850511.534942 222.000000
4363890.408307 850512.656564 222.000000
4363890.408307 850513.778187 222.000000
4363890.408307 850514.899809 222.000000
4363890.408307 850516.021431 222.000000
4363890.408307 850517.143054 222.000000
4363890.408307 850518.264676 222.000000
4363890.408307 850519.386299 222.000000
4363890.408307 850520.507922 222.000000
4363890.408307 850521.629544 222.000000
4363890.408307 850522.751167 222.410300
4363890.408307 850523.872789 223.000000
4363890.408307 850524.994412 223.000000
4363890.408307 850526.116034 223.000000
4363890.408307 850527.237657 222.396900
4363890.408307 850528.359279 222.863400
4363890.408307 850529.480901 223.000000
4363890.408307 850530.602524 223.000000
4363890.408307 850531.724146 222.340000
4363890.408307 850532.845769 222.340000
4363890.408307 850533.967392 223.000000
4363890.408307 850535.089014 222.340000
4363890.408307 850536.210637 222.000000
4363890.408307 850537.332259 222.000000
4363890.408307 850538.453882 222.000000
4363890.408307 850539.575504 222.000000
4363890.408307 850540.697127 222.000000
4363890.408307 850541.818749 222.000000
4363890.408307 850542.940372 222.000000
4363890.408307 850544.061994 222.000000
4363890.408307 850545.183616 222.000000
4363890.408307 850546.305239 222.000000
4363890.408307 850547.426862 222.000000
4363890.408307 850548.548484 222.000000
4363890.408307 850549.670107 222.000000
4363890.408307 850550.791729 222.000000
4363890.408307 850551.913352 222.000000
4363890.408307 850553.034974 222.000000
4363890.408307 850554.156597 222.000000
4363890.408307 850555.278219 222.000000
4363890.408307 850556.399842 222.000000
4363890.408307 850557.521464 222.000000
4363890.408307 850558.643087 222.000000
4363890.408307 850559.764709 222.000000
4363890.408307 850560.886332 222.000000
4363890.408307 850562.007954 222.000000
4363890.408307 850563.129577 222.000000
4363890.408307 850564.251199 222.000000
4363890.408307 850565.372822 222.000000
4363890.408307 850566.494444 222.000000
4363890.408307 850567.616067 222.000000
4363890.408307 850568.737689 222.000000
4363890.408307 850569.859312 222.000000
4363890.408307 850570.980934 222.000000
4363890.408307 850572.102557 222.000000
4363890.408307 850573.224179 222.000000
4363890.408307 850574.345802 222.000000
4363890.408307 850575.467424 222.000000
4363890.408307 850576.589047 222.000000
4363890.408307 850577.710669 222.000000
4363890.408307 850578.832292 222.000000
4363890.408307 850579.953914 222.000000
4363890.408307 850581.075537 222.000000
4363890.408307 850582.197159 222.000000
4363890.408307 850583.318782 222.000000
4363890.408307 850584.440404 222.000000
4363890.408307 850585.562027 222.000000
4363890.408307 850586.683649 222.000000
4363890.408307 850587.805272 222.000000
4363890.408307 850588.926894 222.000000
4363890.408307 850590.048517 222.000000
4363891.529930 850396.007824 222.000000
4363891.529930 850397.129446 222.000000
4363891.529930 850398.251069 222.000000
4363891.529930 850399.372692 222.000000
4363891.529930 850400.494314 222.000000
4363891.529930 850401.615937 222.000000
4363891.529930 850402.737559 222.000000
4363891.529930 850403.859181 222.000000
4363891.529930 850404.980804 222.000000
4363891.529930 850406.102426 222.000000
4363891.529930 850407.224049 222.000000
4363891.529930 850408.345671 222.000000
4363891.529930 850409.467294 222.000000
4363891.529930 850410.588916 222.000000
4363891.529930 850411.710539 222.000000
4363891.529930 850412.832162 222.000000
4363891.529930 850413.953784 222.000000
4363891.529930 850415.075407 222.000000
4363891.529930 850416.197029 222.000000
4363891.529930 850417.318651 222.000000
4363891.529930 850418.440274 222.000000
4363891.529930 850419.561896 222.000000
4363891.529930 850420.683519 222.000000
4363891.529930 850421.805141 222.000000
4363891.529930 850422.926764 222.000000
4363891.529930 850424.048386 222.000000
4363891.529930 850425.170009 222.000000
4363891.529930 850426.291632 222.000000
4363891.529930 850427.413254 222.000000
4363891.529930 850428.534877 222.000000
4363891.529930 850429.656499 222.000000
4363891.529930 850430.778122 222.340000
4363891.529930 850431.899744 222.340000
4363891.529930 850433.021366 222.000000
4363891.529930 850434.142989 222.000000
4363891.529930 850435.264611 222.000000
4363891.529930 850436.386234 222.000000
4363891.529930 850437.507856 221.990800
4363891.529930 850438.629479 221.951800
4363891.529930 850439.751102 222.340000
4363891.529930 850440.872724 223.000000
4363891.529930 850441.994347 223.000000
4363891.529930 850443.115969 222.340000
4363891.529930 850444.237592 223.000000
4363891.529930 850445.359214 222.340000
4363891.529930 850446.480836 222.000000
4363891.529930 850447.602459 222.000000
4363891.529930 850448.724081 222.000000
4363891.529930 850449.845704 223.000000
4363891.529930 850450.967326 222.000000
4363891.529930 850452.088949 222.000000
4363891.529930 850453.210572 222.000000
4363891.529930 850454.332194 222.000000
4363891.529930 850455.453817 222.000000
4363891.529930 850456.575439 222.000000
4363891.529930 850457.697062 222.000000
4363891.529930 850458.818684 222.000000
4363891.529930 850459.940306 222.000000
4363891.529930 850461.061929 222.000000
4363891.529930 850462.183551 222.000000
4363891.529930 850463.305174 222.000000
4363891.529930 850464.426796 222.340000
4363891.529930 850465.548419 224.000000
4363891.529930 850466.670042 224.000000
4363891.529930 850467.791664 224.000000
4363891.529930 850468.913287 224.000000
4363891.529930 850470.034909 224.000000
4363891.529930 850471.156532 224.000000
4363891.529930 850472.278154 224.000000
4363891.529930 850473.399776 224.000000
4363891.529930 850474.521399 224.000000
4363891.529930 850475.643021 224.000000
4363891.529930 850476.764644 224.000000
4363891.529930 850477.886266 224.000000
4363891.529930 850479.007889 222.340000
4363891.529930 850480.129512 224.000000
4363891.529930 850481.251134 224.000000
4363891.529930 850482.372757 225.000000
4363891.529930 850483.494379 225.000000
4363891.529930 850484.616002 225.000000
4363891.529930 850485.737624 225.000000
4363891.529930 850486.859247 225.000000
4363891.529930 850487.980869 225.000000
4363891.529930 850489.102491 225.000000
4363891.529930 850490.224114 225.000000
4363891.529930 850491.345736 224.000000
4363891.529930 850492.467359 224.000000
4363891.529930 850493.588982 224.000000
4363891.529930 850494.710604 224.000000
4363891.529930 850495.832227 224.000000
4363891.529930 850496.953849 224.000000
4363891.529930 850498.075472 224.000000
4363891.529930 850499.197094 222.340000
4363891.529930 850500.318717 222.000000
4363891.529930 850501.440339 222.000000
4363891.529930 850502.561961 222.000000
4363891.529930 850503.683584 222.000000
4363891.529930 850504.805206 222.000000
4363891.529930 850505.926829 222.000000
4363891.529930 850507.048452 222.000000
4363891.529930 850508.170074 222.000000
4363891.529930 850509.291697 222.000000
4363891.529930 850510.413319 222.000000
4363891.529930 850511.534942 222.000000
4363891.529930 850512.656564 222.000000
4363891.529930 850513.778187 222.000000
4363891.529930 850514.899809 222.000000
4363891.529930 850516.021431 222.000000
4363891.529930 850517.143054 222.000000
4363891.529930 850518.264676 222.000000
4363891.529930 850519.386299 222.000000
4363891.529930 850520.507922 222.000000
4363891.529930 850521.629544 222.000000
4363891.529930 850522.751167 222.826000
4363891.529930 850523.872789 223.000000
4363891.529930 850524.994412 223.000000
4363891.529930 850526.116034 222.421200
4363891.529930 850527.237657 222.432100
4363891.529930 850528.359279 222.000000
4363891.529930 850529.480901 222.524800
4363891.529930 850530.602524 222.340000
4363891.529930 850531.724146 223.000000
4363891.529930 850532.845769 223.000000
4363891.529930 850533.967392 222.000000
4363891.529930 850535.089014 222.000000
4363891.529930 850536.210637 222.000000
4363891.529930 850537.332259 222.000000
4363891.529930 850538.453882 222.000000
4363891.529930 850539.575504 222.000000
4363891.529930 850540.697127 222.000000
4363891.529930 850541.818749 222.000000
4363891.529930 850542.940372 222.000000
4363891.529930 850544.061994 222.000000
4363891.529930 850545.183616 222.000000
4363891.529930 850546.305239 222.000000
4363891.529930 850547.426862 222.000000
4363891.529930 850548.548484 222.000000
4363891.529930 850549.670107 222.000000
4363891.529930 850550.791729 222.000000
4363891.529930 850551.913352 222.000000
4363891.529930 850553.034974 222.000000
4363891.529930 850554.156597 222.000000
4363891.529930 850555.278219 222.000000
4363891.529930 850556.399842 222.000000
4363891.529930 850557.521464 222.000000
4363891.529930 850558.643087 222.000000
4363891.529930 850559.764709 222.000000
4363891.529930 850560.886332 222.000000
4363891.529930 850562.007954 222.000000
4363891.529930 850563.129577 222.000000
4363891.529930 850564.251199 222.000000
4363891.529930 850565.372822 222.000000
4363891.529930 850566.494444 222.000000
4363891.529930 850567.616067 222.000000
4363891.529930 850568.737689 222.000000
4363891.529930 850569.859312 222.000000
4363891.529930 850570.980934 222.000000
4363891.529930 850572.102557 222.000000
4363891.529930 850573.224179 222.000000
4363891.529930 850574.345802 222.000000
4363891.529930 850575.467424 222.000000
4363891.529930 850576.589047 222.000000
4363891.529930 850577.710669 222.000000
4363891.529930 850578.832292 222.000000
4363891.529930 850579.953914 222.000000
4363891.529930 850581.075537 222.000000
4363891.529930 850582.197159 222.000000
4363891.529930 850583.318782 222.000000
4363891.529930 850584.440404 222.000000
4363891.529930 850585.562027 222.000000
4363891.529930 850586.683649 222.000000
4363891.529930 850587.805272 222.000000
4363891.529930 850588.926894 222.000000
4363891.529930 850590.048517 222.000000
4363892.651552 850396.007824 222.000000
4363892.651552 850397.129446 222.000000
4363892.651552 850398.251069 222.000000
4363892.651552 850399.372692 222.000000
4363892.651552 850400.494314 222.000000
4363892.651552 850401.615937 222.000000
4363892.651552 850402.737559 222.000000
4363892.651552 850403.859181 222.000000
4363892.651552 850404.980804 222.000000
4363892.651552 850406.102426 222.000000
4363892.651552 850407.224049 222.000000
4363892.651552 850408.345671 222.000000
4363892.651552 850409.467294 222.000000
4363892.651552 850410.588916 222.000000
4363892.651552 850411.710539 222.000000
4363892.651552 850412.832162 222.000000
4363892.651552 850413.953784 222.000000
4363892.651552 850415.075407 222.000000
4363892.651552 850416.197029 222.000000
4363892.651552 850417.318651 222.000000
4363892.651552 850418.440274 222.000000
4363892.651552 850419.561896 222.000000
4363892.651552 850420.683519 222.000000
4363892.651552 850421.805141 222.000000
4363892.651552 850422.926764 222.000000
4363892.651552 850424.048386 222.000000
4363892.651552 850425.170009 222.000000
4363892.651552 850426.291632 222.000000
4363892.651552 850427.413254 222.000000
4363892.651552 850428.534877 222.000000
4363892.651552 850429.656499 222.340000
4363892.651552 850430.778122 223.000000
4363892.651552 850431.899744 223.000000
4363892.651552 850433.021366 222.340000
4363892.651552 850434.142989 222.000000
4363892.651552 850435.264611 222.000000
4363892.651552 850436.386234 222.000000
4363892.651552 850437.507856 223.000000
4363892.651552 850438.629479 223.000000
4363892.651552 850439.751102 223.000000
4363892.651552 850440.872724 222.340000
4363892.651552 850441.994347 222.340000
